ply
format ascii 1.0
element vertex 872
property float x
property float y
property float z
property uchar red
property uchar green
property uchar blue
property uchar label
end_header
0.246513513344 0.440579345955 0.349824595993 1 1 122
0.247140921583 0.44062892787 0.339745095221 1 1 122
0.247776532939 0.440679111554 0.329533868212 1 1 122
0.248420526232 0.440730016345 0.319187934739 1 1 122
0.249073050469 0.440781552941 0.308704910613 1 1 122
0.24973429937 0.440833840686 0.298081696396 1 1 122
0.250404436847 0.440886820083 0.287315788691 1 1 122
0.25108363426 0.440940461454 0.276404326475 1 1 122
0.251772085329 0.440994854347 0.2653440911 1 1 122
0.252469976317 0.441049969078 0.254132340751 1 1 122
0.253177515844 0.441105895209 0.242765499154 1 1 122
0.253894882719 0.44116251365 0.23124082449 1 1 122
0.254622315371 0.441220033188 0.219554382861 1 1 122
0.255359985154 0.44127827513 0.207703432446 1 1 122
0.256108152846 0.441337418463 0.195683920137 1 1 122
0.25686701961 0.441397373927 0.18349250807 1 1 122
0.257636823867 0.441458201292 0.17112538155 1 1 122
0.258417789132 0.441519870911 0.158578964298 1 1 122
0.259210191083 0.441582502185 0.145848845575 1 1 122
0.260014260687 0.441646065477 0.132931210683 1 1 122
0.260830236359 0.441710501349 0.119822244921 1 1 122
0.26165843103 0.441775959024 0.106517060715 1 1 122
0.262499098018 0.441842379074 0.0930116049479 1 1 122
0.263352520447 0.44190982131 0.0793011092496 1 1 122
0.264218981438 0.441978256122 0.0653811628753 1 1 122
0.265098801372 0.442047802947 0.0512465206219 1 1 122
0.265992278266 0.442118342772 0.0368926525308 1 1 122
0.266899747406 0.442190084463 0.0223138365658 1 1 122
0.267821521711 0.442262909017 0.0075053043497 1 1 122
0.268066768394 0.439762456807 0.00356329493049 5 5 255
0.26806660988 0.436340822378 0.00356313641714 5 5 255
0.268066451367 0.43291918795 0.00356297790378 5 5 255
0.268066292854 0.429497553522 0.00356281939043 5 5 255
0.26806613434 0.426075919093 0.00356266087707 5 5 255
0.268065975827 0.422654284665 0.00356250236372 5 5 255
0.268065817314 0.419232650237 0.00356234385037 5 5 255
0.2680656588 0.415811015808 0.00356218533701 5 5 255
0.268065500287 0.41238938138 0.00356202682366 5 5 255
0.268065341774 0.408967746952 0.00356186831031 5 5 255
0.268065183259 0.405546082721 0.00356170979557 5 5 255
0.268065024746 0.402124448293 0.00356155128222 5 5 255
0.268064866232 0.398702813864 0.00356139276886 5 5 255
0.268064707719 0.395281179436 0.00356123425551 5 5 255
0.268064549205 0.391859545008 0.00356107574216 5 5 255
0.268064390692 0.38843791058 0.0035609172288 5 5 255
0.268064232179 0.385016276151 0.00356075871545 5 5 255
0.268064073665 0.381594641723 0.0035606002021 5 5 255
0.268063915152 0.378173007295 0.00356044168874 5 5 255
0.268063756639 0.374751372866 0.00356028317539 5 5 255
0.268063598125 0.371329738438 0.00356012466204 5 5 255
0.268063439612 0.36790810401 0.00355996614868 5 5 255
0.268063281099 0.364486469581 0.00355980763533 5 5 255
0.268063122585 0.361064835153 0.00355964912197 5 5 255
0.268062964072 0.357643200725 0.00355949060862 5 5 255
0.268062805559 0.354221566296 0.00355933209527 5 5 255
0.268062647045 0.350799931868 0.00355917358191 5 5 255
0.268062488532 0.34737829744 0.00355901506856 5 5 255
0.268062330019 0.343956663011 0.00355885655521 5 5 255
0.268062171505 0.340535028583 0.00355869804185 5 5 255
0.268062012992 0.337113394155 0.0035585395285 5 5 255
0.268061854478 0.333691759727 0.00355838101515 5 5 255
0.268061695965 0.330270125298 0.00355822250179 5 5 255
0.268061537452 0.32684849087 0.00355806398844 5 5 255
0.268061378938 0.323426856442 0.00355790547508 5 5 255
0.268061220425 0.320005222013 0.00355774696173 5 5 255
0.268061061912 0.316583587585 0.00355758844838 5 5 255
0.268060903398 0.313161953157 0.00355742993502 5 5 255
0.268060744885 0.309740318728 0.00355727142167 5 5 255
0.268060586372 0.3063186843 0.00355711290832 5 5 255
0.268060427858 0.302897049872 0.00355695439496 5 5 255
0.268060269345 0.299475415443 0.00355679588161 5 5 255
0.268060110832 0.296053781015 0.00355663736826 5 5 255
0.268059952318 0.292632146587 0.0035564788549 5 5 255
0.268059793805 0.289210512159 0.00355632034155 5 5 255
0.268059635292 0.28578887773 0.00355616182819 5 5 255
0.268059476778 0.282367243302 0.00355600331484 5 5 255
0.268059318265 0.278945608874 0.00355584480149 5 5 255
0.268059159751 0.275523974445 0.00355568628813 5 5 255
0.268059001238 0.272102340017 0.00355552777478 5 5 255
0.268058842725 0.268680705589 0.00355536926143 5 5 255
0.268058684211 0.26525907116 0.00355521074807 5 5 255
0.268058525698 0.261837436732 0.00355505223472 5 5 255
0.268058367185 0.258415802304 0.00355489372137 5 5 255
0.268058208671 0.254994167875 0.00355473520801 5 5 255
0.268058050158 0.251572533447 0.00355457669466 5 5 255
0.268057891645 0.248150899019 0.0035544181813 5 5 255
0.268057733131 0.24472926459 0.00355425966795 5 5 255
0.268057574618 0.241307630162 0.0035541011546 5 5 255
0.268057416105 0.237885995734 0.00355394264124 5 5 255
0.268057257591 0.234464361306 0.00355378412789 5 5 255
0.268057099078 0.231042726877 0.00355362561454 5 5 255
0.268056940565 0.227621092449 0.00355346710118 5 5 255
0.268056782051 0.224199458021 0.00355330858783 5 5 255
0.268056623538 0.220777823592 0.00355315007448 5 5 255
0.268056465024 0.217356189164 0.00355299156112 5 5 255
0.268056306511 0.213934554736 0.00355283304777 5 5 255
0.268056147998 0.210512920307 0.00355267453441 5 5 255
0.268055982033 0.207091270973 0.00355263522966 5 5 255
0.26805582352 0.203669636544 0.00355247671631 5 5 255
0.268055665006 0.200248002116 0.00355231820295 5 5 255
0.268055506493 0.196826367688 0.0035521596896 5 5 255
0.26805534798 0.19340473326 0.00355200117625 5 5 255
0.268055189466 0.189983098831 0.00355184266289 5 5 255
0.268055030953 0.186561464403 0.00355168414954 5 5 255
0.26805487244 0.183139829975 0.00355152563618 5 5 255
0.268054713926 0.179718195546 0.00355136712283 5 5 255
0.268054555413 0.176296561118 0.00355120860948 5 5 255
0.2680543969 0.17287492669 0.00355105009612 5 5 255
0.268054238386 0.169453292261 0.00355089158277 5 5 255
0.268054079873 0.166031657833 0.00355073306942 5 5 255
0.26805392136 0.162610023405 0.00355057455606 5 5 255
0.268053762846 0.159188388976 0.00355041604271 5 5 255
0.268053604333 0.155766754548 0.00355025752936 5 5 255
0.268053445819 0.15234512012 0.003550099016 5 5 255
0.268053287306 0.148923485691 0.00354994050265 5 5 255
0.268053128793 0.145501851263 0.00354978198929 5 5 255
0.268052970279 0.142080216835 0.00354962347594 5 5 255
0.268052811766 0.138658582407 0.00354946496259 5 5 255
0.268052653253 0.135236947978 0.00354930644923 5 5 255
0.268052494739 0.13181531355 0.00354914793588 5 5 255
0.268052336226 0.128393679122 0.00354898942253 5 5 255
0.268052177713 0.124972044693 0.00354883090917 5 5 255
0.268052019199 0.121550410265 0.00354867239582 5 5 255
0.268051860686 0.118128775837 0.00354851388247 5 5 255
0.268051702173 0.114707141408 0.00354835536911 5 5 255
0.268051543659 0.11128550698 0.00354819685576 5 5 255
0.268051385146 0.107863872552 0.0035480383424 5 5 255
0.268051226633 0.104442238123 0.00354787982905 5 5 255
0.268051068119 0.101020603695 0.0035477213157 5 5 255
0.268050909606 0.0975989692668 0.00354756280234 5 5 255
0.268050751092 0.0941773348385 0.00354740428899 5 5 255
0.268050592579 0.0907557004102 0.00354724577564 5 5 255
0.268050434066 0.0873340659819 0.00354708726228 5 5 255
0.268050275552 0.0839124315536 0.00354692874893 5 5 255
0.268050117039 0.0804907971253 0.00354677023558 5 5 255
0.268049958526 0.077069162697 0.00354661172222 5 5 255
0.268049800012 0.0736475282686 0.00354645320887 5 5 255
0.268049641499 0.0702258938403 0.00354629469551 5 5 255
0.268049482986 0.066804259412 0.00354613618216 5 5 255
0.268049324472 0.0633826249837 0.00354597766881 5 5 255
0.268049165959 0.0599609905554 0.00354581915545 5 5 255
0.268049007446 0.0565393561271 0.0035456606421 5 5 255
0.268048848932 0.0531177216988 0.00354550212875 5 5 255
0.268048690419 0.0496960872705 0.00354534361539 5 5 255
0.268048531906 0.0462744528422 0.00354518510204 5 5 255
0.268048373392 0.0428528184139 0.00354502658869 5 5 255
0.268048214879 0.0394311839855 0.00354486807533 5 5 255
0.268048056365 0.0360095495572 0.00354470956198 5 5 255
0.268047897852 0.0325879151289 0.00354455104862 5 5 255
0.268047739339 0.0291662807006 0.00354439253527 5 5 255
0.268047580825 0.0257446462723 0.00354423402192 5 5 255
0.268047422312 0.022323011844 0.00354407550856 5 5 255
0.268047263799 0.0189013774157 0.00354391699521 5 5 255
0.268047105285 0.0154797429874 0.00354375848186 5 5 255
0.268046946772 0.0120581085591 0.0035435999685 5 5 255
0.268046788259 0.00863647413075 0.00354344145515 5 5 255
0.268046629745 0.00521483970244 0.0035432829418 5 5 255
0.268046471232 0.00179320527413 0.00354312442844 5 5 255
0.268046312719 -0.00162842915418 0.00354296591509 5 5 255
0.268046154205 -0.00505006358249 0.00354280740173 5 5 255
0.268045995692 -0.0084716980108 0.00354264888838 5 5 255
0.268045837178 -0.0118933324391 0.00354249037503 5 5 255
0.268045678665 -0.0153149668674 0.00354233186167 5 5 255
0.268045520152 -0.0187366012957 0.00354217334832 5 5 255
0.268045361638 -0.022158235724 0.00354201483497 5 5 255
0.268045203125 -0.0255798701524 0.00354185632161 5 5 255
0.268045044612 -0.0290015045807 0.00354169780826 5 5 255
0.268044886098 -0.032423139009 0.0035415392949 5 5 255
0.268044727585 -0.0358447734373 0.00354138078155 5 5 255
0.268044569072 -0.0392664078656 0.0035412222682 5 5 255
0.268044410558 -0.0426880422939 0.00354106375484 5 5 255
0.268044252045 -0.0461096767222 0.00354090524149 5 5 255
0.268044093532 -0.0495313111505 0.00354074672814 5 5 255
0.268043935018 -0.0529529455788 0.00354058821478 5 5 255
0.268043776505 -0.0563745800071 0.00354042970143 5 5 255
0.268043617992 -0.0597962144355 0.00354027118808 5 5 255
0.268043459478 -0.0632178488638 0.00354011267472 5 5 255
0.268043300965 -0.0666394832921 0.00353995416137 5 5 255
0.268043142451 -0.0700611177204 0.00353979564801 5 5 255
0.268042983938 -0.0734827521487 0.00353963713466 5 5 255
0.268042825425 -0.076904386577 0.00353947862131 5 5 255
0.268042666911 -0.0803260210053 0.00353932010795 5 5 255
0.268042508398 -0.0837476554336 0.0035391615946 5 5 255
0.268042349885 -0.0871692898619 0.00353900308125 5 5 255
0.268042191371 -0.0905909242902 0.00353884456789 5 5 255
0.268042032858 -0.0940125587186 0.00353868605454 5 5 255
0.268041874345 -0.0974341931469 0.00353852754119 5 5 255
0.268041715831 -0.100855827575 0.00353836902783 5 5 255
0.268041557318 -0.104277462003 0.00353821051448 5 5 255
0.268041398805 -0.107699096432 0.00353805200112 5 5 255
0.268041240291 -0.11112073086 0.00353789348777 5 5 255
0.268041081778 -0.114542365288 0.00353773497442 5 5 255
0.268040923265 -0.117963999717 0.00353757646106 5 5 255
0.268040764751 -0.121385634145 0.00353741794771 5 5 255
0.268040606238 -0.124807268573 0.00353725943436 5 5 255
0.268040447724 -0.128228903002 0.003537100921 5 5 255
0.268040289211 -0.13165053743 0.00353694240765 5 5 255
0.268040130698 -0.135072171858 0.0035367838943 5 5 255
0.268039972184 -0.138493806287 0.00353662538094 5 5 255
0.268039813671 -0.141915440715 0.00353646686759 5 5 255
0.268039655158 -0.145337075143 0.00353630835423 5 5 255
0.268039496644 -0.148758709572 0.00353614984088 5 5 255
0.268039338131 -0.152180344 0.00353599132753 5 5 255
0.268039179618 -0.155601978428 0.00353583281417 5 5 255
0.268039021104 -0.159023612856 0.00353567430082 5 5 255
0.268038862591 -0.162445247285 0.00353551578747 5 5 255
0.268038704078 -0.165866881713 0.00353535727411 5 5 255
0.268038545564 -0.169288516141 0.00353519876076 5 5 255
0.268038387051 -0.17271015057 0.00353504024741 5 5 255
0.268038228538 -0.176131784998 0.00353488173405 5 5 255
0.268038070024 -0.179553419426 0.0035347232207 5 5 255
0.268037911511 -0.182975053855 0.00353456470734 5 5 255
0.268037752997 -0.186396688283 0.00353440619399 5 5 255
0.268037594484 -0.189818322711 0.00353424768064 5 5 255
0.268037435971 -0.19323995714 0.00353408916728 5 5 255
0.268037277457 -0.196661591568 0.00353393065393 5 5 255
0.268037118944 -0.200083225996 0.00353377214058 5 5 255
0.268036960431 -0.203504860424 0.00353361362722 5 5 255
0.268036801917 -0.206926494853 0.00353345511387 5 5 255
0.268036643404 -0.210348129281 0.00353329660052 5 5 255
0.268036484891 -0.213769763709 0.00353313808716 5 5 255
0.268036326377 -0.217191398138 0.00353297957381 5 5 255
0.268036167864 -0.220613032566 0.00353282106045 5 5 255
0.268036009351 -0.224034666994 0.0035326625471 5 5 255
0.268035850837 -0.227456301423 0.00353250403375 5 5 255
0.268035692324 -0.230877935851 0.00353234552039 5 5 255
0.268035533811 -0.234299570279 0.00353218700704 5 5 255
0.268035375297 -0.237721204708 0.00353202849369 5 5 255
0.268035216784 -0.241142839136 0.00353186998033 5 5 255
0.26803505827 -0.244564473564 0.00353171146698 5 5 255
0.268034899757 -0.247986107993 0.00353155295363 5 5 255
0.268034741243 -0.251407757322 0.00353139443958 5 5 255
0.26803458273 -0.25482939175 0.00353123592623 5 5 255
0.268034424216 -0.258251026179 0.00353107741287 5 5 255
0.268034265703 -0.261672660607 0.00353091889952 5 5 255
0.26803410719 -0.265094295035 0.00353076038617 5 5 255
0.268033948676 -0.268515929464 0.00353060187281 5 5 255
0.268033790163 -0.271937563892 0.00353044335946 5 5 255
0.26803363165 -0.27535919832 0.00353028484611 5 5 255
0.268033473136 -0.278780832748 0.00353012633275 5 5 255
0.268033314623 -0.282202467177 0.0035299678194 5 5 255
0.26803315611 -0.285624101605 0.00352980930604 5 5 255
0.268032997596 -0.289045736033 0.00352965079269 5 5 255
0.268032839083 -0.292467370462 0.00352949227934 5 5 255
0.268032680569 -0.29588900489 0.00352933376598 5 5 255
0.268032522056 -0.299310639318 0.00352917525263 5 5 255
0.268032363543 -0.302732273747 0.00352901673928 5 5 255
0.268032205029 -0.306153908175 0.00352885822592 5 5 255
0.268032046516 -0.309575542603 0.00352869971257 5 5 255
0.268031888003 -0.312997177032 0.00352854119922 5 5 255
0.268031729489 -0.31641881146 0.00352838268586 5 5 255
0.26480869048 -0.311107128201 0.0553118328864 144 1 1
0.264335611092 -0.313140066105 0.0629104964579 165 2 2
0.263987917617 -0.315492665597 0.0684943890159 186 3 3
0.263720017908 -0.318048252618 0.0727962954691 205 3 3
0.263523493585 -0.320790024531 0.0759513999304 230 4 4
0.263393680918 -0.323710832031 0.0780345661649 255 4 4
0.263326139683 -0.326803704476 0.07911720086 255 5 5
0.263316407333 -0.33006107519 0.0792709491495 255 5 5
0.263359306189 -0.333472695787 0.0785790195921 248 4 4
0.26345278741 -0.337037077587 0.0770744332302 228 4 4
0.26360215487 -0.340774512263 0.0746718352722 206 3 3
0.263821644403 -0.344733031226 0.0711425800756 169 2 2
0.2639924358 -0.348555357762 0.0683957017563 132 2 2
0.263979417396 -0.351820240955 0.068602259413 117 2 2
0.26385623574 -0.354741163034 0.0705788525372 127 2 2
0.263718743936 -0.357609911242 0.0727855220076 160 3 3
0.263602870906 -0.360539351685 0.0746446935869 188 3 3
0.263507163916 -0.363526654161 0.0761798516363 216 4 4
0.263433783233 -0.366580519447 0.0773564250587 242 4 4
0.263388814966 -0.369722847988 0.0780763035943 255 5 5
0.263383045803 -0.372991481214 0.0781663936013 255 5 5
0.263436842339 -0.376457483448 0.0772994622874 255 5 5
0.263590535523 -0.380261046452 0.0748272430408 255 4 4
0.263955746992 -0.384787734375 0.0689564526551 225 2 2
0.268027766656 -0.401959672168 0.00352441985202 5 5 255
0.268027608142 -0.405381306596 0.00352426133867 5 5 255
0.268027449629 -0.408802941024 0.00352410282531 5 5 255
0.268027291115 -0.412224575453 0.00352394431196 5 5 255
0.268027132602 -0.415646209881 0.00352378579861 5 5 255
0.268026974089 -0.419067844309 0.00352362728525 5 5 255
0.268026815575 -0.422489478738 0.0035234687719 5 5 255
0.268026657062 -0.425911113166 0.00352331025855 5 5 255
0.268026498549 -0.429332747594 0.00352315174519 5 5 255
0.268026340035 -0.432754382022 0.00352299323184 5 5 255
0.268026181522 -0.436176016451 0.00352283471848 5 5 255
0.268026023009 -0.439597650879 0.00352267620513 5 5 255
0.267780626577 -0.442098743553 0.00746314261662 0 0 102
0.266858702524 -0.442026639522 0.0222741849418 0 0 102
0.265951128233 -0.441955747376 0.036854795654 0 0 102
0.265057538631 -0.441885948154 0.0512106968045 0 0 102
0.264177583548 -0.441817093087 0.0653474912368 0 0 102
0.263311009654 -0.441749390974 0.0792693512665 0 0 102
0.26245748168 -0.441682693035 0.0929816413185 0 0 102
0.261616716505 -0.441616999467 0.106488891346 0 0 102
0.260788438456 -0.441552310463 0.119795512092 0 0 102
0.259972327167 -0.44148844743 0.132906629565 0 0 102
0.259168181461 -0.441425648933 0.145825581613 0 0 102
0.258375688424 -0.44136367677 0.158557375039 0 0 102
0.257594624536 -0.441302620498 0.171105466907 0 0 102
0.256824743926 -0.441242510096 0.183473910331 0 0 102
0.256065785831 -0.441183166931 0.195666877645 0 0 102
0.255317541632 -0.441124680555 0.207687706706 0 0 102
0.254579772912 -0.441066991535 0.219540331422 0 0 102
0.253852278502 -0.44101015961 0.231227851232 0 0 102
0.253134812542 -0.440954035938 0.242754200049 0 0 102
0.252427203663 -0.440898710051 0.254122238893 0 0 102
0.251729235798 -0.440844182095 0.265335305623 0 0 102
0.251040730134 -0.440790422401 0.276396499683 0 0 102
0.250361448261 -0.440737282114 0.287309397358 0 0 102
0.249691263512 -0.440684910343 0.298076263617 0 0 102
0.249029944923 -0.440633188029 0.308700555536 0 0 102
0.248377365829 -0.44058223448 0.319184538085 0 0 102
0.247733302723 -0.44053184123 0.329531668344 0 0 102
0.247097643838 -0.440482187176 0.339743853652 0 0 102
0.246470188012 -0.440433183045 0.349824193456 0 0 102
0.245850771338 -0.440384709741 0.359775310366 0 0 102
0.245807311856 -0.442963236919 0.360471492372 5 5 255
0.245807183177 -0.445740872964 0.360471363693 5 5 255
0.245807054499 -0.448518479207 0.360471235015 5 5 255
0.245806925821 -0.45129608545 0.360471106338 5 5 255
0.245806797142 -0.454073721495 0.360470977659 5 5 255
0.245806668465 -0.456851327738 0.360470848981 5 5 255
0.245806539786 -0.459628963783 0.360470720302 5 5 255
0.245806411108 -0.462406570026 0.360470591625 5 5 255
0.245806282431 -0.465184176269 0.360470462947 5 5 255
0.245806153752 -0.467961812314 0.360470334268 5 5 255
0.245806017625 -0.47073938876 0.360470324801 5 5 255
0.245805888947 -0.473516995002 0.360470196124 5 5 255
0.245805760268 -0.476294631048 0.360470067445 5 5 255
0.245805631591 -0.479072237291 0.360469938767 5 5 255
0.243072419308 0.479206217522 0.360514094311 5 5 255
0.243072290629 0.476428581477 0.360513965632 5 5 255
0.243072161951 0.473650975234 0.360513836955 5 5 255
0.243072033272 0.470873339188 0.360513708276 5 5 255
0.243071904594 0.468095732946 0.360513579598 5 5 255
0.243071775917 0.465318126703 0.36051345092 5 5 255
0.243071647238 0.462540490657 0.360513322241 5 5 255
0.24307151856 0.459762884414 0.360513193564 5 5 255
0.243071389881 0.456985248369 0.360513064885 5 5 255
0.243071261204 0.454207642126 0.360512936207 5 5 255
0.243071132526 0.451430035883 0.36051280753 5 5 255
0.243071003847 0.448652399838 0.360512678851 5 5 255
0.24307087517 0.445874793595 0.360512550173 5 5 255
0.243070746491 0.44309715755 0.360512421494 5 5 255
0.243115219313 0.44053055406 0.359774516298 1 1 122
0.243716610094 0.440579475527 0.349824595993 1 1 122
0.244325838917 0.440629058284 0.339745095221 1 1 122
0.244943017536 0.440679242821 0.329533868212 1 1 122
0.245568347125 0.440730148478 0.319187934739 1 1 122
0.246201961788 0.44078168595 0.308704910613 1 1 122
0.246844047797 0.440833974582 0.298081696396 1 1 122
0.247494754159 0.440886954879 0.287315788691 1 1 122
0.248154267138 0.440940597162 0.276404326475 1 1 122
0.248822765552 0.44099499098 0.2653440911 1 1 122
0.249500420763 0.441050106648 0.254132340751 1 1 122
0.250187456293 0.441106033728 0.242765499154 1 1 122
0.250884028598 0.441162653133 0.23124082449 1 1 122
0.251590376106 0.441220173648 0.219554382861 1 1 122
0.252306670173 0.44127841658 0.207703432446 1 1 122
0.253033149226 0.441337560918 0.195683920137 1 1 122
0.253770021876 0.441397517401 0.18349250807 1 1 122
0.254517511643 0.4414583458 0.17112538155 1 1 122
0.255275834594 0.441520016468 0.158578964298 1 1 122
0.256045266405 0.441582648806 0.145848845575 1 1 122
0.256826030593 0.441646213178 0.132931210683 1 1 122
0.257618365573 0.441710650145 0.119822244921 1 1 122
0.258422554473 0.441776108932 0.106517060715 1 1 122
0.259238843161 0.441842530111 0.0930116049479 1 1 122
0.260067529663 0.441909973493 0.0793011092496 1 1 122
0.260908874747 0.441978409468 0.0653811628753 1 1 122
0.261763198794 0.442047957475 0.0512465206219 1 1 122
0.26263077002 0.4421184985 0.0368926525308 1 1 122
0.263511946061 0.442190241409 0.0223138365658 1 1 122
0.264406995133 0.442263067201 0.0075053043497 1 1 122
0.264645133962 0.43976261532 0.00356329493049 5 5 255
0.264644975448 0.436340980892 0.00356313641713 5 5 255
0.264644816935 0.432919346463 0.00356297790378 5 5 255
0.264644658422 0.429497712035 0.00356281939043 5 5 255
0.264644499908 0.426076077607 0.00356266087707 5 5 255
0.264644341395 0.422654443178 0.00356250236372 5 5 255
0.264644182882 0.41923280875 0.00356234385036 5 5 255
0.264644024368 0.415811174322 0.00356218533701 5 5 255
0.264643865855 0.412389539893 0.00356202682366 5 5 255
0.264643707342 0.408967905465 0.0035618683103 5 5 255
0.264643548827 0.405546241234 0.00356170979557 5 5 255
0.264643390314 0.402124606806 0.00356155128222 5 5 255
0.2646432318 0.398702972378 0.00356139276886 5 5 255
0.264643073287 0.39528133795 0.00356123425551 5 5 255
0.264642914773 0.391859703521 0.00356107574215 5 5 255
0.26464275626 0.388438069093 0.0035609172288 5 5 255
0.264642597747 0.385016434665 0.00356075871545 5 5 255
0.264642439233 0.381594800236 0.00356060020209 5 5 255
0.26464228072 0.378173165808 0.00356044168874 5 5 255
0.264642122207 0.37475153138 0.00356028317539 5 5 255
0.264641963693 0.371329896951 0.00356012466203 5 5 255
0.26464180518 0.367908262523 0.00355996614868 5 5 255
0.264641646667 0.364486628095 0.00355980763533 5 5 255
0.264641488153 0.361064993666 0.00355964912197 5 5 255
0.26464132964 0.357643359238 0.00355949060862 5 5 255
0.264641171127 0.35422172481 0.00355933209526 5 5 255
0.264641012613 0.350800090381 0.00355917358191 5 5 255
0.2646408541 0.347378455953 0.00355901506856 5 5 255
0.264640695587 0.343956821525 0.0035588565552 5 5 255
0.264640537073 0.340535187097 0.00355869804185 5 5 255
0.26464037856 0.337113552668 0.0035585395285 5 5 255
0.264640220046 0.33369191824 0.00355838101514 5 5 255
0.264640061533 0.330270283812 0.00355822250179 5 5 255
0.26463990302 0.326848649383 0.00355806398844 5 5 255
0.264639744506 0.323427014955 0.00355790547508 5 5 255
0.264639585993 0.320005380527 0.00355774696173 5 5 255
0.26463942748 0.316583746098 0.00355758844837 5 5 255
0.264639268966 0.31316211167 0.00355742993502 5 5 255
0.264639110453 0.309740477242 0.00355727142167 5 5 255
0.26463895194 0.306318842813 0.00355711290831 5 5 255
0.264638793426 0.302897208385 0.00355695439496 5 5 255
0.264638634913 0.299475573957 0.00355679588161 5 5 255
0.2646384764 0.296053939529 0.00355663736825 5 5 255
0.264638317886 0.2926323051 0.0035564788549 5 5 255
0.264638159373 0.289210670672 0.00355632034155 5 5 255
0.26463800086 0.285789036244 0.00355616182819 5 5 255
0.264637842346 0.282367401815 0.00355600331484 5 5 255
0.264637683833 0.278945767387 0.00355584480148 5 5 255
0.264637525319 0.275524132959 0.00355568628813 5 5 255
0.264637366806 0.27210249853 0.00355552777478 5 5 255
0.264637208293 0.268680864102 0.00355536926142 5 5 255
0.264637049779 0.265259229674 0.00355521074807 5 5 255
0.264636891266 0.261837595245 0.00355505223472 5 5 255
0.264636732753 0.258415960817 0.00355489372136 5 5 255
0.264636574239 0.254994326389 0.00355473520801 5 5 255
0.264636415726 0.25157269196 0.00355457669466 5 5 255
0.264636257213 0.248151057532 0.0035544181813 5 5 255
0.264636098699 0.244729423104 0.00355425966795 5 5 255
0.264635940186 0.241307788676 0.00355410115459 5 5 255
0.264635781673 0.237886154247 0.00355394264124 5 5 255
0.264635623159 0.234464519819 0.00355378412789 5 5 255
0.264635464646 0.231042885391 0.00355362561453 5 5 255
0.264635306133 0.227621250962 0.00355346710118 5 5 255
0.264635147619 0.224199616534 0.00355330858783 5 5 255
0.264634989106 0.220777982106 0.00355315007447 5 5 255
0.264634830592 0.217356347677 0.00355299156112 5 5 255
0.264634672079 0.213934713249 0.00355283304776 5 5 255
0.264634513566 0.210513078821 0.00355267453441 5 5 255
0.264634347601 0.207091429486 0.00355263522966 5 5 255
0.264634189088 0.203669795058 0.0035524767163 5 5 255
0.264634030574 0.200248160629 0.00355231820295 5 5 255
0.264633872061 0.196826526201 0.0035521596896 5 5 255
0.264633713548 0.193404891773 0.00355200117624 5 5 255
0.264633555034 0.189983257345 0.00355184266289 5 5 255
0.264633396521 0.186561622916 0.00355168414954 5 5 255
0.264633238008 0.183139988488 0.00355152563618 5 5 255
0.264633079494 0.17971835406 0.00355136712283 5 5 255
0.264632920981 0.176296719631 0.00355120860947 5 5 255
0.264632762468 0.172875085203 0.00355105009612 5 5 255
0.264632603954 0.169453450775 0.00355089158277 5 5 255
0.264632445441 0.166031816346 0.00355073306941 5 5 255
0.264632286928 0.162610181918 0.00355057455606 5 5 255
0.264632128414 0.15918854749 0.00355041604271 5 5 255
0.264631969901 0.155766913061 0.00355025752935 5 5 255
0.264631811387 0.152345278633 0.003550099016 5 5 255
0.264631652874 0.148923644205 0.00354994050265 5 5 255
0.264631494361 0.145502009777 0.00354978198929 5 5 255
0.264631335847 0.142080375348 0.00354962347594 5 5 255
0.264631177334 0.13865874092 0.00354946496258 5 5 255
0.264631018821 0.135237106492 0.00354930644923 5 5 255
0.264630860307 0.131815472063 0.00354914793588 5 5 255
0.264630701794 0.128393837635 0.00354898942252 5 5 255
0.264630543281 0.124972203207 0.00354883090917 5 5 255
0.264630384767 0.121550568778 0.00354867239582 5 5 255
0.264630226254 0.11812893435 0.00354851388246 5 5 255
0.264630067741 0.114707299922 0.00354835536911 5 5 255
0.264629909227 0.111285665493 0.00354819685575 5 5 255
0.264629750714 0.107864031065 0.0035480383424 5 5 255
0.264629592201 0.104442396637 0.00354787982905 5 5 255
0.264629433687 0.101020762208 0.00354772131569 5 5 255
0.264629275174 0.0975991277802 0.00354756280234 5 5 255
0.26462911666 0.0941774933519 0.00354740428899 5 5 255
0.264628958147 0.0907558589236 0.00354724577563 5 5 255
0.264628799634 0.0873342244952 0.00354708726228 5 5 255
0.26462864112 0.0839125900669 0.00354692874893 5 5 255
0.264628482607 0.0804909556386 0.00354677023557 5 5 255
0.264628324094 0.0770693212103 0.00354661172222 5 5 255
0.26462816558 0.073647686782 0.00354645320886 5 5 255
0.264628007067 0.0702260523537 0.00354629469551 5 5 255
0.264627848554 0.0668044179254 0.00354613618216 5 5 255
0.26462769004 0.0633827834971 0.0035459776688 5 5 255
0.264627531527 0.0599611490688 0.00354581915545 5 5 255
0.264627373014 0.0565395146404 0.0035456606421 5 5 255
0.2646272145 0.0531178802121 0.00354550212874 5 5 255
0.264627055987 0.0496962457838 0.00354534361539 5 5 255
0.264626897474 0.0462746113555 0.00354518510204 5 5 255
0.26462673896 0.0428529769272 0.00354502658868 5 5 255
0.264626580447 0.0394313424989 0.00354486807533 5 5 255
0.264626421933 0.0360097080706 0.00354470956197 5 5 255
0.26462626342 0.0325880736423 0.00354455104862 5 5 255
0.264626104907 0.029166439214 0.00354439253527 5 5 255
0.264625946393 0.0257448047857 0.00354423402191 5 5 255
0.26462578788 0.0223231703573 0.00354407550856 5 5 255
0.264625629367 0.018901535929 0.00354391699521 5 5 255
0.264625470853 0.0154799015007 0.00354375848185 5 5 255
0.26462531234 0.0120582670724 0.0035435999685 5 5 255
0.264625153827 0.0086366326441 0.00354344145515 5 5 255
0.264624995313 0.00521499821579 0.00354328294179 5 5 255
0.2646248368 0.00179336378748 0.00354312442844 5 5 255
0.264624678287 -0.00162827064083 0.00354296591508 5 5 255
0.264624519773 -0.00504990506914 0.00354280740173 5 5 255
0.26462436126 -0.00847153949745 0.00354264888838 5 5 255
0.264624202747 -0.0118931739258 0.00354249037502 5 5 255
0.264624044233 -0.0153148083541 0.00354233186167 5 5 255
0.26462388572 -0.0187364427824 0.00354217334832 5 5 255
0.264623727206 -0.0221580772107 0.00354201483496 5 5 255
0.264623568693 -0.025579711639 0.00354185632161 5 5 255
0.26462341018 -0.0290013460673 0.00354169780826 5 5 255
0.264623251666 -0.0324229804956 0.0035415392949 5 5 255
0.264623093153 -0.0358446149239 0.00354138078155 5 5 255
0.26462293464 -0.0392662493522 0.00354122226819 5 5 255
0.264622776126 -0.0426878837805 0.00354106375484 5 5 255
0.264622617613 -0.0461095182089 0.00354090524149 5 5 255
0.2646224591 -0.0495311526372 0.00354074672813 5 5 255
0.264622300586 -0.0529527870655 0.00354058821478 5 5 255
0.264622142073 -0.0563744214938 0.00354042970143 5 5 255
0.26462198356 -0.0597960559221 0.00354027118807 5 5 255
0.264621825046 -0.0632176903504 0.00354011267472 5 5 255
0.264621666533 -0.0666393247787 0.00353995416137 5 5 255
0.26462150802 -0.070060959207 0.00353979564801 5 5 255
0.264621349506 -0.0734825936353 0.00353963713466 5 5 255
0.264621190993 -0.0769042280637 0.0035394786213 5 5 255
0.264621032479 -0.080325862492 0.00353932010795 5 5 255
0.264620873966 -0.0837474969203 0.0035391615946 5 5 255
0.264620715453 -0.0871691313486 0.00353900308124 5 5 255
0.264620556939 -0.0905907657769 0.00353884456789 5 5 255
0.264620398426 -0.0940124002052 0.00353868605454 5 5 255
0.264620239913 -0.0974340346335 0.00353852754118 5 5 255
0.264620081399 -0.100855669062 0.00353836902783 5 5 255
0.264619922886 -0.10427730349 0.00353821051448 5 5 255
0.264619764373 -0.107698937918 0.00353805200112 5 5 255
0.264619605859 -0.111120572347 0.00353789348777 5 5 255
0.264619447346 -0.114542206775 0.00353773497441 5 5 255
0.264619288833 -0.117963841203 0.00353757646106 5 5 255
0.264619130319 -0.121385475632 0.00353741794771 5 5 255
0.264618971806 -0.12480711006 0.00353725943435 5 5 255
0.264618813292 -0.128228744488 0.003537100921 5 5 255
0.264618654779 -0.131650378917 0.00353694240765 5 5 255
0.264618496266 -0.135072013345 0.00353678389429 5 5 255
0.264618337752 -0.138493647773 0.00353662538094 5 5 255
0.264618179239 -0.141915282202 0.00353646686759 5 5 255
0.264618020726 -0.14533691663 0.00353630835423 5 5 255
0.264617862212 -0.148758551058 0.00353614984088 5 5 255
0.264617703699 -0.152180185486 0.00353599132752 5 5 255
0.264617545186 -0.155601819915 0.00353583281417 5 5 255
0.264617386672 -0.159023454343 0.00353567430082 5 5 255
0.264617228159 -0.162445088771 0.00353551578746 5 5 255
0.264617069646 -0.1658667232 0.00353535727411 5 5 255
0.264616911132 -0.169288357628 0.00353519876076 5 5 255
0.264616752619 -0.172709992056 0.0035350402474 5 5 255
0.264616594106 -0.176131626485 0.00353488173405 5 5 255
0.264616435592 -0.179553260913 0.0035347232207 5 5 255
0.264616277079 -0.182974895341 0.00353456470734 5 5 255
0.264616118565 -0.18639652977 0.00353440619399 5 5 255
0.264615960052 -0.189818164198 0.00353424768063 5 5 255
0.264615801539 -0.193239798626 0.00353408916728 5 5 255
0.264615643025 -0.196661433055 0.00353393065393 5 5 255
0.264615484512 -0.200083067483 0.00353377214057 5 5 255
0.264615325999 -0.203504701911 0.00353361362722 5 5 255
0.264615167485 -0.206926336339 0.00353345511387 5 5 255
0.264615008972 -0.210347970768 0.00353329660051 5 5 255
0.264614850459 -0.213769605196 0.00353313808716 5 5 255
0.264614691945 -0.217191239624 0.00353297957381 5 5 255
0.264614533432 -0.220612874053 0.00353282106045 5 5 255
0.264614374919 -0.224034508481 0.0035326625471 5 5 255
0.264614216405 -0.227456142909 0.00353250403374 5 5 255
0.264614057892 -0.230877777338 0.00353234552039 5 5 255
0.264613899379 -0.234299411766 0.00353218700704 5 5 255
0.264613740865 -0.237721046194 0.00353202849368 5 5 255
0.264613582352 -0.241142680623 0.00353186998033 5 5 255
0.264613423838 -0.244564315051 0.00353171146698 5 5 255
0.264613265325 -0.247985949479 0.00353155295362 5 5 255
0.264613106811 -0.251407598809 0.00353139443958 5 5 255
0.264612948298 -0.254829233237 0.00353123592622 5 5 255
0.264612789784 -0.258250867665 0.00353107741287 5 5 255
0.264612631271 -0.261672502094 0.00353091889952 5 5 255
0.264612472758 -0.265094136522 0.00353076038616 5 5 255
0.264612314244 -0.26851577095 0.00353060187281 5 5 255
0.264612155731 -0.271937405378 0.00353044335946 5 5 255
0.264611997218 -0.275359039807 0.0035302848461 5 5 255
0.264611838704 -0.278780674235 0.00353012633275 5 5 255
0.264611680191 -0.282202308663 0.0035299678194 5 5 255
0.264611521678 -0.285623943092 0.00352980930604 5 5 255
0.264611363164 -0.28904557752 0.00352965079269 5 5 255
0.264611204651 -0.292467211948 0.00352949227933 5 5 255
0.264611046137 -0.295888846377 0.00352933376598 5 5 255
0.264610887624 -0.299310480805 0.00352917525263 5 5 255
0.264610729111 -0.302732115233 0.00352901673927 5 5 255
0.264610570597 -0.306153749662 0.00352885822592 5 5 255
0.264610412084 -0.30957538409 0.00352869971257 5 5 255
0.264610253571 -0.312997018518 0.00352854119921 5 5 255
0.262150801581 -0.309628951803 0.0442226956061 102 0 0
0.261377152685 -0.310818591761 0.0570216650879 138 1 1
0.260955224232 -0.312954082927 0.0640007932301 163 2 2
0.26063818727 -0.315363381881 0.0692441022208 181 3 3
0.260396205771 -0.317969888355 0.0732455989051 206 3 3
0.26022244816 -0.320760524043 0.0761181750862 233 4 4
0.260113152122 -0.323730314666 0.0779240582438 255 5 5
0.26006449577 -0.326873689939 0.0787264295593 255 5 5
0.260072530593 -0.330184185613 0.0785908544416 255 5 5
0.260133658229 -0.333656052423 0.0775766993832 249 4 4
0.260249956875 -0.337300375334 0.075649512386 230 4 4
0.260437383165 -0.341171353287 0.0725454807811 203 3 3
0.260746168807 -0.345432088003 0.067433112217 178 2 2
0.260875793267 -0.349147092428 0.0652855039687 255 5 5
0.260847994882 -0.352369428834 0.0657427607326 218 4 4
0.260727085608 -0.355291335489 0.0677408114834 142 2 2
0.260538431251 -0.357986644278 0.0708599168917 173 3 3
0.260386510668 -0.360790734889 0.0733711690925 209 4 4
0.260265565284 -0.363687965247 0.0753698170329 237 4 4
0.260172823786 -0.366671810647 0.076901875801 255 5 5
0.260112293843 -0.369758301844 0.0779008258704 255 5 5
0.260092668785 -0.372979768098 0.0782228993402 255 5 5
0.260131581174 -0.376400152492 0.0775762689069 255 5 5
0.260264653755 -0.380147489952 0.075371557911 255 4 4
0.260585807927 -0.38455683994 0.0700545001117 219 2 2
0.264606132224 -0.401959513654 0.00352441985202 5 5 255
0.26460597371 -0.405381148083 0.00352426133866 5 5 255
0.264605815197 -0.408802782511 0.00352410282531 5 5 255
0.264605656683 -0.412224416939 0.00352394431196 5 5 255
0.26460549817 -0.415646051368 0.0035237857986 5 5 255
0.264605339657 -0.419067685796 0.00352362728525 5 5 255
0.264605181143 -0.422489320224 0.0035234687719 5 5 255
0.26460502263 -0.425910954652 0.00352331025854 5 5 255
0.264604864117 -0.429332589081 0.00352315174519 5 5 255
0.264604705603 -0.432754223509 0.00352299323184 5 5 255
0.26460454709 -0.436175857937 0.00352283471848 5 5 255
0.264604388577 -0.439597492366 0.00352267620513 5 5 255
0.264366099999 -0.442098585369 0.00746314261662 0 0 102
0.263470901178 -0.442026482576 0.0222741849418 0 0 102
0.262589627437 -0.441955591649 0.036854795654 0 0 102
0.261721943504 -0.441885793627 0.0512106968045 0 0 102
0.260867491758 -0.441816939741 0.0653474912368 0 0 102
0.260026041222 -0.441749238792 0.0792693512665 0 0 102
0.259197249176 -0.441682541999 0.0929816413185 0 0 102
0.258380854849 -0.44161684956 0.106488891346 0 0 102
0.257576582571 -0.441552161668 0.119795512092 0 0 102
0.256784134326 -0.441488299731 0.132906629565 0 0 102
0.256003294036 -0.441425502313 0.145825581613 0 0 102
0.255233771139 -0.441363531215 0.158557375039 0 0 102
0.254475349566 -0.441302475992 0.171105466907 0 0 102
0.253727783444 -0.441242366623 0.183473910331 0 0 102
0.252990819463 -0.441183024478 0.195666877645 0 0 102
0.252264271355 -0.441124539107 0.207687706706 0 0 102
0.25154787835 -0.441066851077 0.219540331422 0 0 102
0.250841469084 -0.441010020128 0.231227851232 0 0 102
0.250144805145 -0.44095389742 0.242754200049 0 0 102
0.249457707714 -0.440898572484 0.254122238893 0 0 102
0.248779975626 -0.440844045465 0.265335305623 0 0 102
0.248111422617 -0.440790286696 0.276396499683 0 0 102
0.247451832629 -0.440737147321 0.287309397358 0 0 102
0.246801064092 -0.44068477645 0.298076263617 0 0 102
0.246158923297 -0.440633055024 0.308700555536 0 0 102
0.245525253777 -0.440582102351 0.319184538085 0 0 102
0.244899861826 -0.440531709966 0.329531668344 0 0 102
0.244282628227 -0.440482056765 0.339743853652 0 0 102
0.243673359268 -0.440433053477 0.349824193456 0 0 102
0.243071898493 -0.440384581005 0.359775310366 0 0 102
0.243029690709 -0.44296310824 0.360471492372 5 5 255
0.24302956203 -0.445740744285 0.360471363693 5 5 255
0.243029433352 -0.448518350528 0.360471235015 5 5 255
0.243029304674 -0.451295956771 0.360471106338 5 5 255
0.243029175995 -0.454073592816 0.360470977659 5 5 255
0.243029047318 -0.456851199059 0.360470848981 5 5 255
0.243028918639 -0.459628835105 0.360470720302 5 5 255
0.243028789961 -0.462406441347 0.360470591625 5 5 255
0.243028661284 -0.46518404759 0.360470462947 5 5 255
0.243028532605 -0.467961683636 0.360470334268 5 5 255
0.243028396478 -0.470739260081 0.360470324801 5 5 255
0.2430282678 -0.473516866324 0.360470196124 5 5 255
0.243028139121 -0.476294502369 0.360470067445 5 5 255
0.243028010444 -0.479072108612 0.360469938767 5 5 255
0.240294805611 0.4792063462 0.360514094311 5 5 255
0.240294676932 0.476428710154 0.360513965632 5 5 255
0.240294548255 0.473651103912 0.360513836955 5 5 255
0.240294419576 0.470873467866 0.360513708276 5 5 255
0.240294290898 0.468095861623 0.360513579598 5 5 255
0.24029416222 0.465318255381 0.36051345092 5 5 255
0.240294033541 0.462540619335 0.360513322241 5 5 255
0.240293904864 0.459763013092 0.360513193564 5 5 255
0.240293776185 0.456985377047 0.360513064885 5 5 255
0.240293647507 0.454207770804 0.360512936207 5 5 255
0.24029351883 0.451430164561 0.36051280753 5 5 255
0.240293390151 0.448652528516 0.360512678851 5 5 255
0.240293261473 0.445874922273 0.360512550173 5 5 255
0.240293132794 0.443097286228 0.360512421494 5 5 255
0.240336271963 0.4405306828 0.359774516298 1 1 122
0.240919714295 0.440579605098 0.349824595993 1 1 122
0.2415107488 0.440629188698 0.339745095221 1 1 122
0.242109509584 0.440679374089 0.329533868212 1 1 122
0.242716168018 0.44073028061 0.319187934739 1 1 122
0.243330865657 0.440781818959 0.308704910613 1 1 122
0.243953788772 0.440834108479 0.298081696396 1 1 122
0.244585071471 0.440887089676 0.287315788691 1 1 122
0.245224892565 0.440940732871 0.276404326475 1 1 122
0.245873438325 0.440995127612 0.2653440911 1 1 122
0.24653087266 0.441050244217 0.254132340751 1 1 122
0.247197404193 0.441106202056 0.242765379946 1 1 122
0.247873174476 0.441162792616 0.23124082449 1 1 122
0.248558436841 0.441220314108 0.219554382861 1 1 122
0.249253347742 0.44127855803 0.207703432446 1 1 122
0.249958145605 0.441337703373 0.195683920137 1 1 122
0.25067301669 0.441397660876 0.18349250807 1 1 122
0.251398191969 0.441458490308 0.17112538155 1 1 122
0.252133887507 0.441520162024 0.158578964298 1 1 122
0.252880349178 0.441582795426 0.145848845575 1 1 122
0.25363780795 0.441646360878 0.132931210683 1 1 122
0.254406487336 0.441710798941 0.119822244921 1 1 122
0.255186670466 0.44177625884 0.106517060715 1 1 122
0.255978595756 0.441842681147 0.0930116049479 1 1 122
0.25678254633 0.441910125676 0.0793011092496 1 1 122
0.257598775507 0.441978562815 0.0653811628753 1 1 122
0.258427596216 0.442048112003 0.0512465206219 1 1 122
0.259269269223 0.442118654228 0.0368926525308 1 1 122
0.260124137265 0.442190398356 0.0223138365657 1 1 122
0.260992476006 0.442263225385 0.0075053043497 1 1 122
0.26122349953 0.439762773833 0.00356329493048 5 5 255
0.261223341016 0.436341139405 0.00356313641713 5 5 255
0.261223182503 0.432919504977 0.00356297790378 5 5 255
0.26122302399 0.429497870548 0.00356281939042 5 5 255
0.261222865476 0.42607623612 0.00356266087707 5 5 255
0.261222706963 0.422654601692 0.00356250236371 5 5 255
0.26122254845 0.419232967263 0.00356234385036 5 5 255
0.261222389936 0.415811332835 0.00356218533701 5 5 255
0.261222231423 0.412389698407 0.00356202682365 5 5 255
0.26122207291 0.408968063978 0.0035618683103 5 5 255
0.261221914395 0.405546399748 0.00356170979557 5 5 255
0.261221755882 0.402124765319 0.00356155128221 5 5 255
0.261221597368 0.398703130891 0.00356139276886 5 5 255
0.261221438855 0.395281496463 0.00356123425551 5 5 255
0.261221280342 0.391859862035 0.00356107574215 5 5 255
0.261221121828 0.388438227606 0.0035609172288 5 5 255
0.261220963315 0.385016593178 0.00356075871544 5 5 255
0.261220804801 0.38159495875 0.00356060020209 5 5 255
0.261220646288 0.378173324321 0.00356044168874 5 5 255
0.261220487775 0.374751689893 0.00356028317538 5 5 255
0.261220329261 0.371330055465 0.00356012466203 5 5 255
0.261220170748 0.367908421036 0.00355996614868 5 5 255
0.261220012235 0.364486786608 0.00355980763532 5 5 255
0.261219853721 0.36106515218 0.00355964912197 5 5 255
0.261219695208 0.357643517751 0.00355949060861 5 5 255
0.261219536695 0.354221883323 0.00355933209526 5 5 255
0.261219378181 0.350800248895 0.00355917358191 5 5 255
0.261219219668 0.347378614467 0.00355901506855 5 5 255
0.261219061155 0.343956980038 0.0035588565552 5 5 255
0.261218902641 0.34053534561 0.00355869804185 5 5 255
0.261218744128 0.337113711182 0.00355853952849 5 5 255
0.261218585615 0.333692076753 0.00355838101514 5 5 255
0.261218427101 0.330270442325 0.00355822250179 5 5 255
0.261218268588 0.326848807897 0.00355806398843 5 5 255
0.261218110074 0.323427173468 0.00355790547508 5 5 255
0.261217951561 0.32000553904 0.00355774696172 5 5 255
0.261217793048 0.316583904612 0.00355758844837 5 5 255
0.261217634534 0.313162270183 0.00355742993502 5 5 255
0.261217476021 0.309740635755 0.00355727142166 5 5 255
0.261217317508 0.306319001327 0.00355711290831 5 5 255
0.261217158994 0.302897366898 0.00355695439496 5 5 255
0.261217000481 0.29947573247 0.0035567958816 5 5 255
0.261216841968 0.296054098042 0.00355663736825 5 5 255
0.261216683454 0.292632463614 0.0035564788549 5 5 255
0.261216524941 0.289210829185 0.00355632034154 5 5 255
0.261216366428 0.285789194757 0.00355616182819 5 5 255
0.261216207914 0.282367560329 0.00355600331483 5 5 255
0.261216049401 0.2789459259 0.00355584480148 5 5 255
0.261215890887 0.275524291472 0.00355568628813 5 5 255
0.261215732374 0.272102657044 0.00355552777477 5 5 255
0.261215573861 0.268681022615 0.00355536926142 5 5 255
0.261215415347 0.265259388187 0.00355521074807 5 5 255
0.261215256834 0.261837753759 0.00355505223471 5 5 255
0.261215098321 0.25841611933 0.00355489372136 5 5 255
0.261214939807 0.254994484902 0.00355473520801 5 5 255
0.261214781294 0.251572850474 0.00355457669465 5 5 255
0.261214622781 0.248151216046 0.0035544181813 5 5 255
0.261214464267 0.244729581617 0.00355425966794 5 5 255
0.261214305754 0.241307947189 0.00355410115459 5 5 255
0.261214147241 0.237886312761 0.00355394264124 5 5 255
0.261213988727 0.234464678332 0.00355378412788 5 5 255
0.261213830214 0.231043043904 0.00355362561453 5 5 255
0.261213671701 0.227621409476 0.00355346710118 5 5 255
0.261213513187 0.224199775047 0.00355330858782 5 5 255
0.261213354674 0.220778140619 0.00355315007447 5 5 255
0.26121319616 0.217356506191 0.00355299156112 5 5 255
0.261213037647 0.213934871762 0.00355283304776 5 5 255
0.261212879134 0.210513237334 0.00355267453441 5 5 255
0.261212713169 0.207091587999 0.00355263522965 5 5 255
0.261212554656 0.203669953571 0.0035524767163 5 5 255
0.261212396142 0.200248319143 0.00355231820295 5 5 255
0.261212237629 0.196826684715 0.00355215968959 5 5 255
0.261212079116 0.193405050286 0.00355200117624 5 5 255
0.261211920602 0.189983415858 0.00355184266289 5 5 255
0.261211762089 0.18656178143 0.00355168414953 5 5 255
0.261211603576 0.183140147001 0.00355152563618 5 5 255
0.261211445062 0.179718512573 0.00355136712282 5 5 255
0.261211286549 0.176296878145 0.00355120860947 5 5 255
0.261211128036 0.172875243716 0.00355105009612 5 5 255
0.261210969522 0.169453609288 0.00355089158276 5 5 255
0.261210811009 0.16603197486 0.00355073306941 5 5 255
0.261210652496 0.162610340431 0.00355057455606 5 5 255
0.261210493982 0.159188706003 0.0035504160427 5 5 255
0.261210335469 0.155767071575 0.00355025752935 5 5 255
0.261210176956 0.152345437146 0.003550099016 5 5 255
0.261210018442 0.148923802718 0.00354994050264 5 5 255
0.261209859929 0.14550216829 0.00354978198929 5 5 255
0.261209701415 0.142080533862 0.00354962347593 5 5 255
0.261209542902 0.138658899433 0.00354946496258 5 5 255
0.261209384389 0.135237265005 0.00354930644923 5 5 255
0.261209225875 0.131815630577 0.00354914793587 5 5 255
0.261209067362 0.128393996148 0.00354898942252 5 5 255
0.261208908849 0.12497236172 0.00354883090917 5 5 255
0.261208750335 0.121550727292 0.00354867239581 5 5 255
0.261208591822 0.118129092863 0.00354851388246 5 5 255
0.261208433309 0.114707458435 0.00354835536911 5 5 255
0.261208274795 0.111285824007 0.00354819685575 5 5 255
0.261208116282 0.107864189578 0.0035480383424 5 5 255
0.261207957769 0.10444255515 0.00354787982904 5 5 255
0.261207799255 0.101020920722 0.00354772131569 5 5 255
0.261207640742 0.0975992862935 0.00354756280234 5 5 255
0.261207482228 0.0941776518652 0.00354740428898 5 5 255
0.261207323715 0.0907560174369 0.00354724577563 5 5 255
0.261207165202 0.0873343830086 0.00354708726228 5 5 255
0.261207006688 0.0839127485803 0.00354692874892 5 5 255
0.261206848175 0.080491114152 0.00354677023557 5 5 255
0.261206689662 0.0770694797237 0.00354661172222 5 5 255
0.261206531148 0.0736478452954 0.00354645320886 5 5 255
0.261206372635 0.070226210867 0.00354629469551 5 5 255
0.261206214122 0.0668045764387 0.00354613618215 5 5 255
0.261206055608 0.0633829420104 0.0035459776688 5 5 255
0.261205897095 0.0599613075821 0.00354581915545 5 5 255
0.261205738582 0.0565396731538 0.00354566064209 5 5 255
0.261205580068 0.0531180387255 0.00354550212874 5 5 255
0.261205421555 0.0496964042972 0.00354534361539 5 5 255
0.261205263042 0.0462747698689 0.00354518510203 5 5 255
0.261205104528 0.0428531354406 0.00354502658868 5 5 255
0.261204946015 0.0394315010123 0.00354486807533 5 5 255
0.261204787501 0.0360098665839 0.00354470956197 5 5 255
0.261204628988 0.0325882321556 0.00354455104862 5 5 255
0.261204470475 0.0291665977273 0.00354439253526 5 5 255
0.261204311961 0.025744963299 0.00354423402191 5 5 255
0.261204153448 0.0223233288707 0.00354407550856 5 5 255
0.261203994935 0.0189016944424 0.0035439169952 5 5 255
0.261203836421 0.0154800600141 0.00354375848185 5 5 255
0.261203677908 0.0120584255858 0.0035435999685 5 5 255
0.261203519395 0.00863679115746 0.00354344145514 5 5 255
0.261203360881 0.00521515672915 0.00354328294179 5 5 255
0.261203202368 0.00179352230084 0.00354312442844 5 5 255
0.261203043855 -0.00162811212747 0.00354296591508 5 5 255
0.261202885341 -0.00504974655578 0.00354280740173 5 5 255
0.261202726828 -0.00847138098409 0.00354264888837 5 5 255
0.261202568315 -0.0118930154124 0.00354249037502 5 5 255
0.261202409801 -0.0153146498407 0.00354233186167 5 5 255
0.261202251288 -0.018736284269 0.00354217334831 5 5 255
0.261202092774 -0.0221579186973 0.00354201483496 5 5 255
0.261201934261 -0.0255795531256 0.00354185632161 5 5 255
0.261201775748 -0.029001187554 0.00354169780825 5 5 255
0.261201617234 -0.0324228219823 0.0035415392949 5 5 255
0.261201458721 -0.0358444564106 0.00354138078155 5 5 255
0.261201300208 -0.0392660908389 0.00354122226819 5 5 255
0.261201141694 -0.0426877252672 0.00354106375484 5 5 255
0.261200983181 -0.0461093596955 0.00354090524148 5 5 255
0.261200824668 -0.0495309941238 0.00354074672813 5 5 255
0.261200666154 -0.0529526285521 0.00354058821478 5 5 255
0.261200507641 -0.0563742629804 0.00354042970142 5 5 255
0.261200349128 -0.0597958974087 0.00354027118807 5 5 255
0.261200190614 -0.0632175318371 0.00354011267472 5 5 255
0.261200032101 -0.0666391662654 0.00353995416136 5 5 255
0.261199873588 -0.0700608006937 0.00353979564801 5 5 255
0.261199715074 -0.073482435122 0.00353963713465 5 5 255
